32.69012347915714 -7.032 -3.516
28.682030559937978 -7.735200000000001 -3.516
54.30217615957037 -8.438400000000001 -3.516
86.71874937003868 -9.1416 -3.516
90.47463432730166 -9.844800000000001 -3.516
89.29387848369966 -10.548 -3.516
89.0830923799063 -11.2512 -3.516
89.83535912277833 -11.954400000000001 -3.516
87.64743817529155 -12.6576 -3.516
85.45705189476973 -13.360800000000001 -3.516
87.13791224928313 -14.064 -3.516
85.89829208101159 -14.7672 -3.516
84.65197791661103 -15.470400000000001 -3.516
91.30986327813086 15.470400000000001 -4.219200000000001
89.68444400962404 14.7672 -4.219200000000001
89.9678286234243 14.064 -4.219200000000001
89.26736408690068 13.360800000000001 -4.219200000000001
91.4669547730752 12.6576 -4.219200000000001
91.71217306215003 11.954400000000001 -4.219200000000001
89.0092074135565 11.2512 -4.219200000000001
90.20025626070905 10.548 -4.219200000000001
88.434386632819 9.844800000000001 -4.219200000000001
91.56994045330603 9.1416 -4.219200000000001
88.78440807852941 8.438400000000001 -4.219200000000001
89.9275865294267 7.735200000000001 -4.219200000000001
89.08093770748695 7.032 -4.219200000000001
88.21787393189136 6.3288 -4.219200000000001
90.31628349503934 5.6256 -4.219200000000001
87.43782962231181 4.9224000000000006 -4.219200000000001
78.57238109773081 4.219200000000001 -4.219200000000001
42.802745740452266 3.516 -4.219200000000001
35.85918035890227 2.8128 -4.219200000000001
35.87810240605704 2.1096000000000004 -4.219200000000001
31.90366239133241 1.4064 -4.219200000000001
35.89973167531516 0.7032 -4.219200000000001
33.907855881688796 0.0 -4.219200000000001
32.90808736903889 -0.7032 -4.219200000000001
32.900651841061546 -1.4064 -4.219200000000001
35.87810240605704 -2.1096000000000004 -4.219200000000001
28.886561955782383 -2.8128 -4.219200000000001
32.84861882406802 -3.516 -4.219200000000001
35.80513569010518 -4.219200000000001 -4.219200000000001
31.79557440811339 -4.9224000000000006 -4.219200000000001
32.75205884984943 -5.6256 -4.219200000000001
28.745149932863477 -6.3288 -4.219200000000001
33.65279868949507 -7.032 -4.219200000000001
31.622887570787412 -7.735200000000001 -4.219200000000001
56.23012511640196 -8.438400000000001 -4.219200000000001
85.66220235954437 -9.1416 -4.219200000000001
89.4169909287392 -9.844800000000001 -4.219200000000001
90.20025626070905 -10.548 -4.219200000000001
89.0092074135565 -11.2512 -4.219200000000001
88.78518881548565 -11.954400000000001 -4.219200000000001
86.60169122131587 -12.6576 -4.219200000000001
86.35647177971914 -13.360800000000001 -4.219200000000001
89.0004326167208 -14.064 -4.219200000000001
84.86269970803134 -14.7672 -4.219200000000001
85.54292454477523 -15.470400000000001 -4.219200000000001
89.29988703669667 15.470400000000001 -4.9224000000000006
90.55989262556353 14.7672 -4.9224000000000006
90.84604347904637 14.064 -4.9224000000000006
90.14916447917506 13.360800000000001 -4.9224000000000006
90.40515372142184 12.6576 -4.9224000000000006
92.59693452332975 11.954400000000001 -4.9224000000000006
89.89907903074533 11.2512 -4.9224000000000006
89.13231985859605 10.548 -4.9224000000000006
89.3292987257486 9.844800000000001 -4.9224000000000006
89.51282205907339 9.1416 -4.9224000000000006
87.71181029792777 8.438400000000001 -4.9224000000000006
88.85214749655367 7.735200000000001 -4.9224000000000006
88.99357507549831 7.032 -4.9224000000000006
89.12159769014835 6.3288 -4.9224000000000006
89.23619605665571 5.6256 -4.9224000000000006
88.34471565865445 4.9224000000000006 -4.9224000000000006
77.50171261977638 4.219200000000001 -4.9224000000000006
40.77189566872163 3.516 -4.9224000000000006
36.819124344508225 2.8128 -4.9224000000000006
37.83418949727314 2.1096000000000004 -4.9224000000000006
28.88433905268925 1.4064 -4.9224000000000006
33.87205084398152 0.7032 -4.9224000000000006
32.8782902574066 0.0 -4.9224000000000006
31.879577264923782 -0.7032 -4.9224000000000006
32.86838581857742 -1.4064 -4.9224000000000006
33.85164323440228 -2.1096000000000004 -4.9224000000000006
35.824012875737736 -2.8128 -4.9224000000000006
33.81084031064721 -3.516 -4.9224000000000006
32.789186108366934 -4.219200000000001 -4.9224000000000006
33.74966665611519 -4.9224000000000006 -4.9224000000000006
32.719938554107095 -5.6256 -4.9224000000000006
36.638879050394316 -6.3288 -4.9224000000000006
33.61979502852159 -7.032 -4.9224000000000006
36.52810508191651 -7.735200000000001 -4.9224000000000006
52.23287579539519 -8.438400000000001 -4.9224000000000006
85.57819251801521 -9.1416 -4.9224000000000006
89.3292987257486 -9.844800000000001 -4.9224000000000006
91.09127194340036 -10.548 -4.9224000000000006
88.92191512823723 -11.2512 -4.9224000000000006
89.67282080154038 -11.954400000000001 -4.9224000000000006
87.48885844008564 -12.6576 -4.9224000000000006
87.2411269153307 -13.360800000000001 -4.9224000000000006
86.98025439483162 -14.064 -4.9224000000000006
86.70628017341188 -14.7672 -4.9224000000000006
88.3396731975924 -15.470400000000001 -4.9224000000000006
91.11702577704396 15.470400000000001 -5.6256
92.38197598458353 14.7672 -5.6256
92.67388425112401 14.064 -5.6256
91.98358493166377 13.360800000000001 -5.6256
91.27378551011462 12.6576 -5.6256
91.51848592214542 11.954400000000001 -5.6256
90.77334358853255 11.2512 -5.6256
91.96649610071239 10.548 -5.6256
89.22815098893022 9.844800000000001 -5.6256
88.42892293031697 9.1416 -5.6256
92.53454427369238 8.438400000000001 -5.6256
90.72379648430106 7.735200000000001 -5.6256
88.89280747921507 7.032 -5.6256
90.99892258102581 6.3288 -5.6256
89.13515374016869 5.6256 -5.6256
91.2192226356925 4.9224000000000006 -5.6256
80.39141717690316 4.219200000000001 -5.6256
42.712350527581286 3.516 -5.6256
37.77141868131207 2.8128 -5.6256
33.81331295363679 2.1096000000000004 -5.6256
35.81582059862801 1.4064 -5.6256
31.84347995824982 0.7032 -5.6256
33.83624580627424 0.0 -5.6256
36.81902370172635 -0.7032 -5.6256
35.81582059862801 -1.4064 -5.6256
32.81880374911806 -2.1096000000000004 -5.6256
35.78344927703249 -2.8128 -5.6256
33.772556231110784 -3.516 -5.6256
35.72951874529029 -4.219200000000001 -5.6256
35.694478422662286 -4.9224000000000006 -5.6256
33.67328030184151 -5.6256 -5.6256
36.59739277715168 -6.3288 -5.6256
32.59402940904552 -7.032 -5.6256
32.54223134762972 -7.735200000000001 -5.6256
53.15814245509987 -8.438400000000001 -5.6256
86.4638357540877 -9.1416 -5.6256
90.20868012067672 -9.844800000000001 -5.6256
90.00976214112276 -10.548 -5.6256
89.79728613059135 -11.2512 -5.6256
87.6240822658839 -11.954400000000001 -5.6256
89.3317900737292 -12.6576 -5.6256
87.14234361947095 -13.360800000000001 -5.6256
89.77782536827638 -14.064 -5.6256
85.64579023570765 -14.7672 -5.6256
88.23964601566362 -15.470400000000001 -5.6256
91.00001202279978 15.470400000000001 -6.3288
91.30226132861732 14.7672 -6.3288
92.55487115753216 14.064 -6.3288
90.89845350555035 13.360800000000001 -6.3288
91.15657044283672 12.6576 -6.3288
89.45625540278017 11.954400000000001 -6.3288
89.68196720439208 11.2512 -6.3288
88.91705980298433 10.548 -6.3288
92.05137272172558 9.844800000000001 -6.3288
91.25920665104827 9.1416 -6.3288
92.41571012244127 8.438400000000001 -6.3288
89.62242589754445 7.735200000000001 -6.3288
89.76507954262745 7.032 -6.3288
90.88206049655176 6.3288 -6.3288
90.00980385731901 5.6256 -6.3288
88.13135771581337 4.9224000000000006 -6.3288
81.27938946533811 4.219200000000001 -6.3288
43.64953358605368 3.516 -6.3288
37.722912099086216 2.8128 -6.3288
35.75635350982278 2.1096000000000004 -6.3288
35.76982542271175 1.4064 -6.3288
35.77790938223207 0.7032 -6.3288
37.768415513526634 0.0 -6.3288
33.790247749885836 -0.7032 -6.3288
33.78261289922776 -1.4064 -6.3288
33.76988942594373 -2.1096000000000004 -6.3288
33.75207924655082 -2.8128 -6.3288
37.69732446068272 -3.516 -6.3288
35.68363439941673 -4.219200000000001 -6.3288
32.6779191530544 -4.9224000000000006 -6.3288
33.630036606031275 -5.6256 -6.3288
35.56254541169417 -6.3288 -6.3288
36.497889484365004 -7.032 -6.3288
31.515578337598047 -7.735200000000001 -6.3288
51.12358432305262 -8.438400000000001 -6.3288
83.40895231547424 -9.1416 -6.3288
88.1342930314394 -9.844800000000001 -6.3288
88.91705980298433 -10.548 -6.3288
89.68196720439208 -11.2512 -6.3288
88.48390480057603 -11.954400000000001 -6.3288
86.30781669587732 -12.6576 -6.3288
88.9644438564961 -13.360800000000001 -6.3288
86.7701917101864 -14.064 -6.3288
90.34118489357924 -14.7672 -6.3288
86.21053770581032 -15.470400000000001 -6.3288
89.91277222432286 15.470400000000001 -7.032
91.17110620436351 14.7672 -7.032
91.45918836852002 14.064 -7.032
91.73349417687268 13.360800000000001 -7.032
91.99398231116274 12.6576 -7.032
91.26965970778758 11.954400000000001 -7.032
91.4999470055556 11.2512 -7.032
91.71645180810945 10.548 -7.032
90.94127829618047 9.844800000000001 -7.032
89.16836900092143 9.1416 -7.032
90.31948839693317 8.438400000000001 -7.032
87.52678969585526 7.735200000000001 -7.032
89.6361325703428 7.032 -7.032
90.75150898815082 6.3288 -7.032
90.8682032009754 5.6256 -7.032
88.00475757465945 4.9224000000000006 -7.032
83.14220852698782 4.219200000000001 -7.032
44.57744110794155 3.516 -7.032
38.660005567100704 2.8128 -7.032
37.68860027357024 2.1096000000000004 -7.032
31.749726483046075 1.4064 -7.032
33.741708271479574 0.7032 -7.032
35.72920555782082 0.0 -7.032
35.72651464039014 -0.7032 -7.032
36.71062124602202 -1.4064 -7.032
35.70498973285602 -2.1096000000000004 -7.032
33.70359459695958 -2.8128 -7.032
35.66195288635325 -3.516 -7.032
35.632375082994784 -4.219200000000001 -7.032
35.59743003019933 -4.9224000000000006 -7.032
32.594029409045525 -5.6256 -7.032
38.47074837541176 -6.3288 -7.032
35.46044804980595 -7.032 -7.032
31.470306407498516 -7.735200000000001 -7.032
50.068412046126 -8.438400000000001 -7.032
84.26900806680487 -9.1416 -7.032
88.00768867372304 -9.844800000000001 -7.032
90.74074487398063 -10.548 -7.032
90.52654331400713 -11.2512 -7.032
90.29870588110899 -11.954400000000001 -7.032
88.1205514770085 -12.6576 -7.032
87.87103126416226 -13.360800000000001 -7.032
84.72009027820802 -14.064 -7.032
86.37262693044964 -14.7672 -7.032
87.04321566397213 -15.470400000000001 -7.032
91.6798813968074 15.470400000000001 -7.735200000000001
90.06804740064763 14.7672 -7.735200000000001
91.31384246492834 14.064 -7.735200000000001
89.6595499843504 13.360800000000001 -7.735200000000001
92.81460532457457 12.6576 -7.735200000000001
91.12461500099135 11.954400000000001 -7.735200000000001
91.35453632880078 11.2512 -7.735200000000001
90.5965407126322 10.548 -7.735200000000001
88.84413705263347 9.844800000000001 -7.735200000000001
90.98329361159725 9.1416 -7.735200000000001
90.1759536915945 8.438400000000001 -7.735200000000001
89.35146150019965 7.735200000000001 -7.735200000000001
90.47713092155824 7.032 -7.735200000000001
89.62242589754445 6.3288 -7.735200000000001
89.73766826164562 5.6256 -7.735200000000001
88.85214749655367 4.9224000000000006 -7.735200000000001
79.05721892696853 4.219200000000001 -7.735200000000001
44.50659914473135 3.516 -7.735200000000001
37.60886066563467 2.8128 -7.735200000000001
32.677560454568415 2.1096000000000004 -7.735200000000001
35.66167895053441 1.4064 -7.735200000000001
35.66973846901559 0.7032 -7.735200000000001
36.663325807572804 0.0 -7.735200000000001
33.688086331848055 -0.7032 -7.735200000000001
33.68047456439361 -1.4064 -7.735200000000001
36.63847687330398 -2.1096000000000004 -7.735200000000001
32.660326367524846 -2.8128 -7.735200000000001
36.594314852334655 -3.516 -7.735200000000001
31.622887570787412 -4.219200000000001 -7.735200000000001
33.56636683203139 -4.9224000000000006 -7.735200000000001
38.45900068356241 -5.6256 -7.735200000000001
35.4550256297978 -6.3288 -7.735200000000001
36.38754178367015 -7.032 -7.735200000000001
31.42029415391636 -7.735200000000001 -7.735200000000001
47.04832366517974 -8.438400000000001 -7.735200000000001
82.1784587459588 -9.1416 -7.735200000000001
87.86782785425288 -9.844800000000001 -7.735200000000001
90.5965407126322 -10.548 -7.735200000000001
87.46710925097948 -11.2512 -7.735200000000001
87.24697180945981 -11.954400000000001 -7.735200000000001
88.9473301027173 -12.6576 -7.735200000000001
86.76730643646813 -13.360800000000001 -7.735200000000001
85.54665241451181 -14.064 -7.735200000000001
86.23536453253497 -14.7672 -7.735200000000001
89.76988386770725 -15.470400000000001 -7.735200000000001
90.56680843827276 15.470400000000001 -8.438400000000001
90.86761889282215 14.7672 -8.438400000000001
91.15474209876105 14.064 -8.438400000000001
90.46573338814311 13.360800000000001 -8.438400000000001
91.68775583731676 12.6576 -8.438400000000001
91.9335660829002 11.954400000000001 -8.438400000000001
92.16552851789984 11.2512 -8.438400000000001
92.38360820217363 10.548 -8.438400000000001
89.66394789871512 9.844800000000001 -8.438400000000001
88.8715483336153 9.1416 -8.438400000000001
90.01883592210267 8.438400000000001 -8.438400000000001
88.21560687221202 7.735200000000001 -8.438400000000001
89.3377548274013 7.032 -8.438400000000001
90.44941841770847 6.3288 -8.438400000000001
90.56572418276274 5.6256 -8.438400000000001
89.68286221473514 4.9224000000000006 -8.438400000000001
78.9194738475817 4.219200000000001 -8.438400000000001
43.441740927656305 3.516 -8.438400000000001
38.53131544100489 2.8128 -8.438400000000001
35.58613616406913 2.1096000000000004 -8.438400000000001
37.57729638555378 1.4064 -8.438400000000001
37.58578883244928 0.7032 -8.438400000000001
33.63192297019867 0.0 -8.438400000000001
36.596689126332194 -0.7032 -8.438400000000001
36.588420164881306 -1.4064 -8.438400000000001
33.60912859939863 -2.1096000000000004 -8.438400000000001
31.61543831056812 -2.8128 -8.438400000000001
35.54324257717334 -3.516 -8.438400000000001
37.48675007760131 -4.219200000000001 -8.438400000000001
36.464460460936266 -4.9224000000000006 -8.438400000000001
33.46994154580362 -5.6256 -8.438400000000001
32.44381312809109 -6.3288 -8.438400000000001
33.378941364084 -7.032 -8.438400000000001
32.34572251981107 -7.735200000000001 -8.438400000000001
45.009417961051334 -8.438400000000001 -8.438400000000001
77.15222327863306 -9.1416 -8.438400000000001
89.66394789871512 -9.844800000000001 -8.438400000000001
90.43869013475947 -10.548 -8.438400000000001
89.25503814365038 -11.2512 -8.438400000000001
87.09495734169494 -11.954400000000001 -8.438400000000001
86.862084477458 -12.6576 -8.438400000000001
86.61612771205192 -13.360800000000001 -8.438400000000001
86.3571240935631 -14.064 -8.438400000000001
86.0851126353052 -14.7672 -8.438400000000001
85.80013430994262 -15.470400000000001 -8.438400000000001
89.44356501885565 15.470400000000001 -9.1416
91.65002012903545 14.7672 -9.1416
90.98191123505973 14.064 -9.1416
90.29420889608863 13.360800000000001 -9.1416
90.55061000915632 12.6576 -9.1416
90.79337162417036 11.954400000000001 -9.1416
89.08580914933927 11.2512 -9.1416
91.23783215281858 10.548 -9.1416
92.41222437462719 9.844800000000001 -9.1416
89.67780519429148 9.1416 -9.1416
90.82476917611234 8.438400000000001 -9.1416
90.98329361159725 7.735200000000001 -9.1416
90.14824118774474 7.032 -9.1416
90.27792485910153 6.3288 -9.1416
89.4114665184316 5.6256 -9.1416
87.5455072885443 4.9224000000000006 -9.1416
80.73908728140962 4.219200000000001 -9.1416
46.31569568627066 3.516 -9.1416
37.47215022789905 2.8128 -9.1416
33.54540514859023 2.1096000000000004 -9.1416
36.51904792913177 1.4064 -9.1416
33.56562814121452 0.7032 -9.1416
37.51735115982379 0.0 -9.1416
35.54007685540361 -0.7032 -9.1416
36.51904792913177 -1.4064 -9.1416
33.54540514859023 -2.1096000000000004 -9.1416
36.48604101137539 -2.8128 -9.1416
36.461292348766264 -3.516 -9.1416
33.47718253131619 -4.219200000000001 -9.1416
35.41166586952354 -4.9224000000000006 -9.1416
33.40648199589752 -5.6256 -9.1416
35.3261445100832 -6.3288 -9.1416
36.25527091246256 -7.032 -9.1416
31.30607952227002 -7.735200000000001 -9.1416
41.994248113686346 -8.438400000000001 -9.1416
77.00594141683725 -9.1416 -9.1416
87.54842309175208 -9.844800000000001 -9.1416
86.38475597447717 -10.548 -9.1416
88.11748513684645 -11.2512 -9.1416
88.86159775982631 -11.954400000000001 -9.1416
89.58730564735677 -12.6576 -9.1416
87.41247882493687 -13.360800000000001 -9.1416
87.15109391989931 -14.064 -9.1416
88.7859570000031 -14.7672 -9.1416
84.68592858168248 -15.470400000000001 -9.1416
90.20976010164475 15.470400000000001 -9.844800000000001
91.4621150132492 14.7672 -9.844800000000001
90.79537590706951 14.064 -9.844800000000001
93.94351261355018 13.360800000000001 -9.844800000000001
91.32628830549818 12.6576 -9.844800000000001
91.57112947487339 11.954400000000001 -9.844800000000001
91.8021774269294 11.2512 -9.844800000000001
91.05077212391052 10.548 -9.844800000000001
90.28122483550466 9.844800000000001 -9.844800000000001
91.43946411805217 9.1416 -9.844800000000001
87.7147316400474 8.438400000000001 -9.844800000000001
89.82044625101406 7.735200000000001 -9.844800000000001
88.98555188120885 7.032 -9.844800000000001
89.11356295401094 6.3288 -9.844800000000001
90.20868012067672 5.6256 -9.844800000000001
87.3660174350728 4.9224000000000006 -9.844800000000001
79.5909479695371 4.219200000000001 -9.844800000000001
46.22073710199106 3.516 -9.844800000000001
38.37941053982162 2.8128 -9.844800000000001
33.476628805391734 2.1096000000000004 -9.844800000000001
35.45919718617265 1.4064 -9.844800000000001
33.49681033589998 0.7032 -9.844800000000001
37.44043134896336 0.0 -9.844800000000001
37.43761155188822 -0.7032 -9.844800000000001
33.48924178694084 -1.4064 -9.844800000000001
33.476628805391734 -2.1096000000000004 -9.844800000000001
36.41123564034359 -2.8128 -9.844800000000001
35.40311778024847 -3.516 -9.844800000000001
33.408546061287176 -4.219200000000001 -9.844800000000001
36.320703877502176 -4.9224000000000006 -9.844800000000001
35.299048742873495 -5.6256 -9.844800000000001
37.21225705771886 -6.3288 -9.844800000000001
36.180938676975025 -7.032 -9.844800000000001
35.14713114170115 -7.735200000000001 -9.844800000000001
40.93354143202212 -8.438400000000001 -9.844800000000001
72.95701924312672 -9.1416 -9.844800000000001
86.39816140171952 -9.844800000000001 -9.844800000000001
89.11352165318903 -10.548 -9.844800000000001
87.93682258790078 -11.2512 -9.844800000000001
86.75159634461689 -11.954400000000001 -9.844800000000001
86.51964155257721 -12.6576 -9.844800000000001
87.23326171258229 -13.360800000000001 -9.844800000000001
86.97241271098237 -14.064 -9.844800000000001
85.74573282492112 -14.7672 -9.844800000000001
86.41145441315443 -15.470400000000001 -9.844800000000001
92.85328731139592 15.470400000000001 -10.548
93.16169212375698 14.7672 -10.548
90.5951642123178 14.064 -10.548
91.82337208531717 13.360800000000001 -10.548
91.1249059027672 12.6576 -10.548
90.40742604791588 11.954400000000001 -10.548
90.63553779840768 11.2512 -10.548
91.81648659083976 10.548 -10.548
90.08214688854977 9.844800000000001 -10.548
89.29660168148202 9.1416 -10.548
89.46623110105237 8.438400000000001 -10.548
88.64822800913474 7.735200000000001 -10.548
89.76503793985181 7.032 -10.548
89.89417035026986 6.3288 -10.548
90.00976214112276 5.6256 -10.548
88.1528438161939 4.9224000000000006 -10.548
78.43500544409484 4.219200000000001 -10.548
47.100067771621795 3.516 -10.548
37.31286315270301 2.8128 -10.548
33.40280992947715 2.1096000000000004 -10.548
32.4325893601203 1.4064 -10.548
31.45689125454747 0.7032 -10.548
35.391668157428825 0.0 -10.548
35.38900266136591 -0.7032 -10.548
35.3810065746767 -1.4064 -10.548
33.40280992947715 -2.1096000000000004 -10.548
33.38519334715532 -2.8128 -10.548
33.36254800489877 -3.516 -10.548
33.3348773137403 -4.219200000000001 -10.548
31.34323335686894 -4.9224000000000006 -10.548
35.22121127261325 -5.6256 -10.548
35.17597970227951 -6.3288 -10.548
32.19832882625119 -7.032 -10.548
36.04378501470313 -7.735200000000001 -10.548
40.84327941569782 -8.438400000000001 -10.548
76.67860361779435 -9.1416 -10.548
87.17627118246752 -9.844800000000001 -10.548
87.95052926069913 -10.548 -10.548
86.77870640273078 -11.2512 -10.548
88.48386379157724 -11.954400000000001 -10.548
85.36964868785557 -12.6576 -10.548
85.1279178707628 -13.360800000000001 -10.548
86.78063098232546 -14.064 -10.548
86.5072855434886 -14.7672 -10.548
86.22090964629619 -15.470400000000001 -10.548
90.74360709356306 15.470400000000001 -11.2512
91.04500477079124 14.7672 -11.2512
91.33268848004904 14.064 -11.2512
91.60661488798517 13.360800000000001 -11.2512
89.95285225987496 12.6576 -11.2512
91.15352207522075 11.954400000000001 -11.2512
92.34544809094288 11.2512 -11.2512
89.67132994948845 10.548 -11.2512
88.90316129765793 9.844800000000001 -11.2512
90.05413316183208 9.1416 -11.2512
90.22520160173353 8.438400000000001 -11.2512
88.43896602043479 7.735200000000001 -11.2512
87.60633223936173 7.032 -11.2512
89.68196720439208 6.3288 -11.2512
88.82122867265014 5.6256 -11.2512
89.89907903074533 4.9224000000000006 -11.2512
84.11859162160285 4.219200000000001 -11.2512
49.925689135991455 3.516 -11.2512
38.20438238490371 2.8128 -11.2512
36.26430902007548 2.1096000000000004 -11.2512
36.277972315242394 1.4064 -11.2512
33.34404913331078 0.7032 -11.2512
37.26968538058689 0.0 -11.2512
36.28617111566174 -0.7032 -11.2512
33.33651510049301 -1.4064 -11.2512
33.32395964006936 -2.1096000000000004 -11.2512
35.26558373991112 -2.8128 -11.2512
32.304857676229766 -3.516 -11.2512
32.27806422689412 -4.219200000000001 -11.2512
37.132228295307854 -4.9224000000000006 -11.2512
32.20989611205994 -5.6256 -11.2512
35.09294368867516 -6.3288 -11.2512
35.0425328957447 -7.032 -11.2512
31.099416622570477 -7.735200000000001 -11.2512
37.836374865243094 -8.438400000000001 -11.2512
67.78268087449726 -9.1416 -11.2512
86.97048387814364 -9.844800000000001 -11.2512
86.77870640273078 -10.548 -11.2512
87.53578933620626 -11.2512 -11.2512
84.43694676441501 -11.954400000000001 -11.2512
88.03896178626061 -12.6576 -11.2512
86.83543702923595 -13.360800000000001 -11.2512
87.52715979338033 -14.064 -11.2512
87.2514629053416 -14.7672 -11.2512
85.07213165021537 -15.470400000000001 -11.2512
89.57235644405873 15.470400000000001 -11.954400000000001
92.70785960763871 14.7672 -11.954400000000001
92.05180986957473 14.064 -11.954400000000001
90.4242251789689 13.360800000000001 -11.954400000000001
91.63553228330667 12.6576 -11.954400000000001
91.88120252017772 11.954400000000001 -11.954400000000001
91.15352207522074 11.2512 -11.954400000000001
90.40742604791588 10.548 -11.954400000000001
91.57112947487339 9.844800000000001 -11.954400000000001
88.8615977598263 9.1416 -11.954400000000001
89.99812258641809 8.438400000000001 -11.954400000000001
88.2163826073427 7.735200000000001 -11.954400000000001
87.38584440107321 7.032 -11.954400000000001
89.45625540278016 6.3288 -11.954400000000001
91.5184859221454 5.6256 -11.954400000000001
87.72341165368081 4.9224000000000006 -11.954400000000001
83.90688173771173 4.219200000000001 -11.954400000000001
48.8235647406404 3.516 -11.954400000000001
37.131095409093625 2.8128 -11.954400000000001
32.26244011384568 2.1096000000000004 -11.954400000000001
36.18666782287506 1.4064 -11.954400000000001
32.281889665448176 0.7032 -11.954400000000001
32.28432113407786 0.0 -11.954400000000001
33.26012874621933 -0.7032 -11.954400000000001
36.18666782287506 -1.4064 -11.954400000000001
32.26244011384568 -2.1096000000000004 -11.954400000000001
37.131095409093625 -2.8128 -11.954400000000001
32.22355272882266 -3.516 -11.954400000000001
33.172488128862774 -4.219200000000001 -11.954400000000001
31.190546365753175 -4.9224000000000006 -11.954400000000001
32.128830164157435 -5.6256 -11.954400000000001
33.0599204749405 -6.3288 -11.954400000000001
32.04147628039352 -7.032 -11.954400000000001
32.95996712801815 -7.735200000000001 -11.954400000000001
36.773426433160076 -8.438400000000001 -11.954400000000001
70.50974604855783 -9.1416 -11.954400000000001
83.85987646646299 -9.844800000000001 -11.954400000000001
88.48386379157724 -10.548 -11.954400000000001
89.23450055784768 -11.2512 -11.954400000000001
86.13862736266661 -11.954400000000001 -11.954400000000001
86.86284831021777 -12.6576 -11.954400000000001
87.56872333121198 -13.360800000000001 -11.954400000000001
88.25585894711804 -14.064 -11.954400000000001
87.0318682030894 -14.7672 -11.954400000000001
85.80088880430888 -15.470400000000001 -11.954400000000001
89.33285955654382 15.470400000000001 -12.6576
90.57304072216547 14.7672 -12.6576
92.75213381098112 14.064 -12.6576
91.13173953428203 13.360800000000001 -12.6576
92.34250348693989 12.6576 -12.6576
93.54460587254222 11.954400000000001 -12.6576
90.90979749668216 11.2512 -12.6576
89.20648683113 10.548 -12.6576
91.32628830549817 9.844800000000001 -12.6576
91.51391437095585 9.1416 -12.6576
89.75748729337326 8.438400000000001 -12.6576
90.88096771364594 7.735200000000001 -12.6576
91.02562460262418 7.032 -12.6576
89.21706894405297 6.3288 -12.6576
90.3027877919219 5.6256 -12.6576
87.48885844008564 4.9224000000000006 -12.6576
84.65558580061216 4.219200000000001 -12.6576
48.69302120849531 3.516 -12.6576
37.03181498225735 2.8128 -12.6576
37.05135580115805 2.1096000000000004 -12.6576
35.11450954587342 1.4064 -12.6576
33.171198437480165 0.7032 -12.6576
32.197999921439305 0.0 -12.6576
33.171198437480165 -0.7032 -12.6576
33.16370345999157 -1.4064 -12.6576
35.101284443202374 -2.1096000000000004 -12.6576
31.1846863008483 -2.8128 -12.6576
31.163533573436997 -3.516 -12.6576
32.1107394416115 -4.219200000000001 -12.6576
34.995543376034256 -4.9224000000000006 -12.6576
35.92691557313022 -5.6256 -12.6576
35.88077772749956 -6.3288 -12.6576
34.86087750738798 -7.032 -12.6576
32.87183938578683 -7.735200000000001 -12.6576
35.70996806295496 -8.438400000000001 -12.6576
67.43130532596746 -9.1416 -12.6576
85.55831220199302 -9.844800000000001 -12.6576
88.24727729531139 -10.548 -12.6576
88.99590702306779 -11.2512 -12.6576
87.81738510483555 -11.954400000000001 -12.6576
86.63059605475804 -12.6576 -12.6576
88.28387267383572 -13.360800000000001 -12.6576
86.12698139591105 -14.064 -12.6576
86.79916402540859 -14.7672 -12.6576
85.57147599626829 -15.470400000000001 -12.6576
90.01758982619492 15.470400000000001 -13.360800000000001
92.19817143009287 14.7672 -13.360800000000001
92.48949891160129 14.064 -13.360800000000001
91.82029387543747 13.360800000000001 -13.360800000000001
91.13173953428203 12.6576 -13.360800000000001
92.3278930774735 11.954400000000001 -13.360800000000001
90.65237931623533 11.2512 -13.360800000000001
91.82337208531719 10.548 -13.360800000000001
90.10908352728282 9.844800000000001 -13.360800000000001
90.29420889608863 9.1416 -13.360800000000001
90.46573338814311 8.438400000000001 -13.360800000000001
87.73138761909556 7.735200000000001 -13.360800000000001
88.83664699233987 7.032 -13.360800000000001
88.96444385649609 6.3288 -13.360800000000001
89.07884014434808 5.6256 -13.360800000000001
87.2411269153307 4.9224000000000006 -13.360800000000001
84.41587690826478 4.219200000000001 -13.360800000000001
51.46845170934996 3.516 -13.360800000000001
37.89871852395562 2.8128 -13.360800000000001
37.91871678749199 2.1096000000000004 -13.360800000000001
33.06979784765247 1.4064 -13.360800000000001
33.07727160252788 0.7032 -13.360800000000001
33.07976297924375 0.0 -13.360800000000001
36.968715320472334 -0.7032 -13.360800000000001
33.06979784765247 -1.4064 -13.360800000000001
31.11279326153189 -2.1096000000000004 -13.360800000000001
32.06814644334706 -2.8128 -13.360800000000001
33.01749732297922 -3.516 -13.360800000000001
36.87130255763289 -4.219200000000001 -13.360800000000001
32.9577590569027 -4.9224000000000006 -13.360800000000001
32.92044092291125 -5.6256 -13.360800000000001
31.911159209395336 -6.3288 -13.360800000000001
32.830934758038644 -7.032 -13.360800000000001
30.85059784407756 -7.735200000000001 -13.360800000000001
34.64645108482077 -8.438400000000001 -13.360800000000001
59.55575480380314 -9.1416 -13.360800000000001
83.39883262631494 -9.844800000000001 -13.360800000000001
88.95389170765102 -10.548 -13.360800000000001
89.69814374448549 -11.2512 -13.360800000000001
87.56872333121198 -11.954400000000001 -13.360800000000001
87.3345837203536 -12.6576 -13.360800000000001
86.1406880687094 -13.360800000000001 -13.360800000000001
85.88310613220119 -14.064 -13.360800000000001
86.55338542416881 -14.7672 -13.360800000000001
86.26685691677012 -15.470400000000001 -13.360800000000001
91.61817364147193 15.470400000000001 -14.064
90.0465072215164 14.7672 -14.064
90.33103588147323 14.064 -14.064
92.48949891160127 13.360800000000001 -14.064
92.75213381098112 12.6576 -14.064
92.05180986957473 11.954400000000001 -14.064
89.42992413671469 11.2512 -14.064
90.59516421231778 10.548 -14.064
89.83963510804773 9.844800000000001 -14.064
90.02420690626961 9.1416 -14.064
90.19521849772146 8.438400000000001 -14.064
89.39144578145617 7.735200000000001 -14.064
88.57100347267202 7.032 -14.064
86.7701917101864 6.3288 -14.064
88.81247240732718 5.6256 -14.064
90.84604347904636 4.9224000000000006 -14.064
81.26126456309292 4.219200000000001 -14.064
51.31454832457784 3.516 -14.064
37.78539199351518 2.8128 -14.064
36.83596300968027 2.1096000000000004 -14.064
31.03144563097784 1.4064 -14.064
28.128603214501933 0.7032 -14.064
32.980846316300116 0.0 -14.064
32.97836238941606 -0.7032 -14.064
32.970910982913956 -1.4064 -14.064
34.89722811443394 -2.1096000000000004 -14.064
34.8788233786294 -2.8128 -14.064
30.982368799745114 -3.516 -14.064
32.89146422791856 -4.219200000000001 -14.064
32.859207215825286 -4.9224000000000006 -14.064
32.82200067227309 -5.6256 -14.064
30.851623719177386 -6.3288 -14.064
32.732762152944005 -7.032 -14.064
31.719545277290898 -7.735200000000001 -14.064
34.54284963742524 -8.438400000000001 -14.064
64.16619002893685 -9.1416 -14.064
84.10519031391702 -9.844800000000001 -14.064
86.78063098232546 -10.548 -14.064
90.38130630838187 -11.2512 -14.064
90.15383440834637 -11.954400000000001 -14.064
88.96633243094108 -12.6576 -14.064
88.71441732337266 -13.360800000000001 -14.064
86.56724271974518 -14.064 -14.064
89.10852277129227 -14.7672 -14.064
85.07401838136678 -15.470400000000001 -14.064
90.39765609956288 15.470400000000001 -14.7672
94.4380245106668 14.7672 -14.7672
91.92247612196466 14.064 -14.7672
92.19817143009287 13.360800000000001 -14.7672
91.5165098963547 12.6576 -14.7672
90.81586247278895 11.954400000000001 -14.7672
91.04500477079124 11.2512 -14.7672
90.30980358935625 10.548 -14.7672
89.55665428380651 9.844800000000001 -14.7672
90.69533241935801 9.1416 -14.7672
89.91111764131877 8.438400000000001 -14.7672
90.06804740064764 7.735200000000001 -14.7672
89.25171449479797 7.032 -14.7672
89.38010845854117 6.3288 -14.7672
90.45735148490472 5.6256 -14.7672
89.59648951252562 4.9224000000000006 -14.7672
83.89835084771282 4.219200000000001 -14.7672
53.08321420736671 3.516 -14.7672
37.666373908037166 2.8128 -14.7672
36.719935477270305 2.1096000000000004 -14.7672
32.8670577609512 1.4064 -14.7672
32.87448569668618 0.7032 -14.7672
35.777870193669685 0.0 -14.7672
34.80827897296184 -0.7032 -14.7672
31.900379591511456 -1.4064 -14.7672
34.787307294256074 -2.1096000000000004 -14.7672
36.700569448856726 -2.8128 -14.7672
34.74537657209457 -3.516 -14.7672
31.82351239051176 -4.219200000000001 -14.7672
32.75570584328893 -4.9224000000000006 -14.7672
34.64324099421882 -5.6256 -14.7672
34.59875166137077 -6.3288 -14.7672
31.669963207831536 -7.032 -14.7672
31.619633661929488 -7.735200000000001 -14.7672
34.43404505412207 -8.438400000000001 -14.7672
61.10001341935697 -9.1416 -14.7672
86.69846318964247 -9.844800000000001 -14.7672
87.45791505495552 -10.548 -14.7672
90.09661930442883 -11.2512 -14.7672
88.92386533793918 -11.954400000000001 -14.7672
88.68610237378704 -12.6576 -14.7672
88.43498075947683 -13.360800000000001 -14.7672
87.23255387084401 -14.064 -14.7672
88.8278448367658 -14.7672 -14.7672
88.53378690163376 -15.470400000000001 -14.7672
91.02725092087533 15.470400000000001 -15.470400000000001
89.46572150059832 14.7672 -15.470400000000001
91.61817364147194 14.064 -15.470400000000001
90.01758982619492 13.360800000000001 -15.470400000000001
90.27320544661269 12.6576 -15.470400000000001
90.51522335399618 11.954400000000001 -15.470400000000001
89.79836118633844 11.2512 -15.470400000000001
91.90580478781023 10.548 -15.470400000000001
89.26018367952217 9.844800000000001 -15.470400000000001
88.49203773142102 9.1416 -15.470400000000001
90.56680843827276 8.438400000000001 -15.470400000000001
89.76988386770725 7.735200000000001 -15.470400000000001
88.95625337087263 7.032 -15.470400000000001
88.1263274326061 6.3288 -15.470400000000001
90.15789918991719 5.6256 -15.470400000000001
91.2203147149052 4.9224000000000006 -15.470400000000001
85.54292454477523 4.219200000000001 -15.470400000000001
54.83139478689579 3.516 -15.470400000000001
37.54168219503137 2.8128 -15.470400000000001
36.598376877886615 2.1096000000000004 -15.470400000000001
34.685209932367854 1.4064 -15.470400000000001
35.656744568575576 0.7032 -15.470400000000001
34.6956618463118 0.0 -15.470400000000001
30.83826557282212 -0.7032 -15.470400000000001
36.61216603972162 -1.4064 -15.470400000000001
34.672146515892585 -2.1096000000000004 -15.470400000000001
32.728646016181195 -2.8128 -15.470400000000001
35.59230889675691 -3.516 -15.470400000000001
30.75700657789671 -4.219200000000001 -15.470400000000001
32.64727052954502 -4.9224000000000006 -15.470400000000001
32.61030396231047 -5.6256 -15.470400000000001
30.652635628732558 -6.3288 -15.470400000000001
32.52164101730827 -7.032 -15.470400000000001
35.334954288352854 -7.735200000000001 -15.470400000000001
35.27338854964308 -8.438400000000001 -15.470400000000001
64.70385554555514 -9.1416 -15.470400000000001
85.46187799103187 -9.844800000000001 -15.470400000000001
89.06335721705322 -10.548 -15.470400000000001
92.63409890801229 -11.2512 -15.470400000000001
89.57235644405873 -11.954400000000001 -15.470400000000001
90.27320544661269 -12.6576 -15.470400000000001
90.01758982619492 -13.360800000000001 -15.470400000000001
87.87865634998329 -14.064 -15.470400000000001
89.46572150059832 -14.7672 -15.470400000000001
88.2407024232975 -15.470400000000001 -15.470400000000001
90.71119984948773 15.470400000000001 -16.1736
91.01248988863095 14.7672 -16.1736
92.23170423356675 14.064 -16.1736
91.57389943812953 13.360800000000001 -16.1736
91.8339343842345 12.6576 -16.1736
92.08013652712404 11.954400000000001 -16.1736
92.31246878175095 11.2512 -16.1736
90.64251051650722 10.548 -16.1736
90.84282684470028 9.844800000000001 -16.1736
90.08123612055951 9.1416 -16.1736
93.10243044716943 8.438400000000001 -16.1736
90.40988139837008 7.735200000000001 -16.1736
88.6473929043632 7.032 -16.1736
91.6386245317387 6.3288 -16.1736
90.80066300296086 5.6256 -16.1736
90.90359331657338 4.9224000000000006 -16.1736
87.16155386963304 4.219200000000001 -16.1736
53.68240315784965 3.516 -16.1736
37.411335636617274 2.8128 -16.1736
34.55176312583304 2.1096000000000004 -16.1736
34.564781185486794 1.4064 -16.1736
34.57259280571781 0.7032 -16.1736
32.65435254265864 0.0 -16.1736
31.69154340524133 -0.7032 -16.1736
32.64451556407086 -1.4064 -16.1736
34.55176312583304 -2.1096000000000004 -16.1736
34.53354058764671 -2.8128 -16.1736
32.59288763155157 -3.516 -16.1736
34.481493838536146 -4.219200000000001 -16.1736
34.44767746733307 -4.9224000000000006 -16.1736
31.541282937870612 -5.6256 -16.1736
31.50077718278518 -6.3288 -16.1736
34.315119833947044 -7.032 -16.1736
31.4055377489075 -7.735200000000001 -16.1736
34.20089281732754 -8.438400000000001 -16.1736
57.84163582478031 -9.1416 -16.1736
86.11142961320547 -9.844800000000001 -16.1736
85.9215464271058 -10.548 -16.1736
89.48657688026877 -11.2512 -16.1736
89.2613568375182 -11.954400000000001 -16.1736
88.08561053181676 -12.6576 -16.1736
86.90176171169435 -13.360800000000001 -16.1736
89.43680410527683 -14.064 -16.1736
89.15509213580175 -14.7672 -16.1736
87.93432638470749 -15.470400000000001 -16.1736
89.45922503870231 15.470400000000001 -16.876800000000003
90.68168000843038 14.7672 -16.876800000000003
90.96821568528856 14.064 -16.876800000000003
92.17208007264215 13.360800000000001 -16.876800000000003
91.50013873850311 12.6576 -16.876800000000003
91.74544599211434 11.954400000000001 -16.876800000000003
91.97693377137954 11.2512 -16.876800000000003
90.31304542790522 10.548 -16.876800000000003
87.68411384980398 9.844800000000001 -16.876800000000003
90.69858809718215 9.1416 -16.876800000000003
90.87088075519004 8.438400000000001 -16.876800000000003
90.08126186416173 7.735200000000001 -16.876800000000003
91.17437896097353 7.032 -16.876800000000003
91.30553879328473 6.3288 -16.876800000000003
91.42294541378949 5.6256 -16.876800000000003
88.66637547715708 4.9224000000000006 -16.876800000000003
83.98172782501274 4.219200000000001 -16.876800000000003
55.397539716336325 3.516 -16.876800000000003
35.3637972581465 2.8128 -16.876800000000003
31.557327319137507 2.1096000000000004 -16.876800000000003
31.569217165917753 1.4064 -16.876800000000003
36.36064751626553 0.7032 -16.876800000000003
32.53566133372806 0.0 -16.876800000000003
31.57635179044112 -0.7032 -16.876800000000003
31.569217165917753 -1.4064 -16.876800000000003
31.557327319137507 -2.1096000000000004 -16.876800000000003
31.540684041049577 -2.8128 -16.876800000000003
31.51928983860515 -3.516 -16.876800000000003
31.49314793437978 -4.219200000000001 -16.876800000000003
35.2758698134926 -4.9224000000000006 -16.876800000000003
30.47431513792983 -5.6256 -16.876800000000003
35.19067640991182 -6.3288 -16.876800000000003
36.089858338718685 -7.032 -16.876800000000003
30.34316189108606 -7.735200000000001 -16.876800000000003
31.23686525959658 -8.438400000000001 -16.876800000000003
54.79706364204755 -9.1416 -16.876800000000003
82.02707424659081 -9.844800000000001 -16.876800000000003
86.55000186840917 -10.548 -16.876800000000003
85.40715278770956 -11.2512 -16.876800000000003
87.06455589047586 -11.954400000000001 -16.876800000000003
85.89808942798251 -12.6576 -16.876800000000003
86.58589340157293 -13.360800000000001 -16.876800000000003
84.47048599348223 -14.064 -16.876800000000003
87.90571021225392 -14.7672 -16.876800000000003
87.61470493481154 -15.470400000000001 -16.876800000000003
92.79442639986345 15.470400000000001 -17.580000000000002
90.33721088730529 14.7672 -17.580000000000002
90.62265811175754 14.064 -17.580000000000002
89.0394661084037 13.360800000000001 -17.580000000000002
89.29230423054086 12.6576 -17.580000000000002
89.53169239127372 11.954400000000001 -17.580000000000002
91.62754441801663 11.2512 -17.580000000000002
90.90716388174715 10.548 -17.580000000000002
92.04732348622848 9.844800000000001 -17.580000000000002
89.412866677639 9.1416 -17.580000000000002
87.69676502035124 8.438400000000001 -17.580000000000002
89.73907352908346 7.735200000000001 -17.580000000000002
90.82803824268409 7.032 -17.580000000000002
90.9586998430243 6.3288 -17.580000000000002
88.22954608551628 5.6256 -17.580000000000002
87.37978158370534 4.9224000000000006 -17.580000000000002
81.76128434542457 4.219200000000001 -17.580000000000002
52.33259780997041 3.516 -17.580000000000002
35.22946211834729 2.8128 -17.580000000000002
35.2480518779784 2.1096000000000004 -17.580000000000002
34.30832329768989 1.4064 -17.580000000000002
32.4096282386674 0.7032 -17.580000000000002
30.505477015109044 0.0 -17.580000000000002
32.4096282386674 -0.7032 -17.580000000000002
32.402305336707116 -1.4064 -17.580000000000002
32.390101725709876 -2.1096000000000004 -17.580000000000002
34.27731449352709 -2.8128 -17.580000000000002
34.254064021071535 -3.516 -17.580000000000002
31.373516086035007 -4.219200000000001 -17.580000000000002
31.342747741981267 -4.9224000000000006 -17.580000000000002
32.25596308502745 -5.6256 -17.580000000000002
32.21453952773778 -6.3288 -17.580000000000002
32.16826354428395 -7.032 -17.580000000000002
32.11714210514566 -7.735200000000001 -17.580000000000002
33.94713484658757 -8.438400000000001 -17.580000000000002
33.88277053047373 -9.1416 -17.580000000000002
69.5051218161317 -9.844800000000001 -17.580000000000002
72.16341875149001 -10.548 -17.580000000000002
78.53789521544283 -11.2512 -17.580000000000002
75.54236545513722 -11.954400000000001 -17.580000000000002
78.13076620172326 -12.6576 -17.580000000000002
73.27206065170722 -13.360800000000001 -17.580000000000002
77.67656409579219 -14.064 -17.580000000000002
83.88455296678349 -14.7672 -17.580000000000002
86.36312952066501 -15.470400000000001 -17.580000000000002
89.6812652189622 15.470400000000001 -18.2832
92.73359771043536 14.7672 -18.2832
91.18450580183887 14.064 -18.2832
90.5341697196374 13.360800000000001 -18.2832
90.79125222991763 12.6576 -18.2832
90.10573390279802 11.954400000000001 -18.2832
91.2643533496391 11.2512 -18.2832
91.48030069659187 10.548 -18.2832
91.68246850762357 9.844800000000001 -18.2832
91.87082633051011 9.1416 -18.2832
89.22763112606565 8.438400000000001 -18.2832
89.38336793643384 7.735200000000001 -18.2832
88.5832658994696 7.032 -18.2832
82.10458243182374 6.3288 -18.2832
82.21015786217194 5.6256 -18.2832
84.19538114071776 4.9224000000000006 -18.2832
0.0 4.219200000000001 -18.2832
36.96147929676843 3.516 -18.2832
30.347952795041333 2.8128 -18.2832
35.108336493253184 2.1096000000000004 -18.2832
32.273869854037784 1.4064 -18.2832
32.28116372965447 0.7032 -18.2832
34.1826301520542 0.0 -18.2832
31.331717737605814 -0.7032 -18.2832
27.527712522561636 -1.4064 -18.2832
34.15946253397607 -2.1096000000000004 -18.2832
32.244699844731414 -2.8128 -18.2832
32.22282810487504 -3.516 -18.2832
32.196102690359 -4.219200000000001 -18.2832
31.218512108356016 -4.9224000000000006 -18.2832
34.017996356760804 -5.6256 -18.2832
31.14311747414004 -6.3288 -18.2832
34.86788125830186 -7.032 -18.2832
31.989836945671062 -7.735200000000001 -18.2832
30.994861338528068 -8.438400000000001 -18.2832
30.936094580681978 -9.1416 -18.2832
43.970163467941916 -9.844800000000001 -18.2832
0.0 -10.548 -18.2832
0.0 -11.2512 -18.2832
0.0 -11.954400000000001 -18.2832
0.0 -12.6576 -18.2832
0.0 -13.360800000000001 -18.2832
0.0 -14.064 -18.2832
0.0 -14.7672 -18.2832
75.0394259995398 -15.470400000000001 -18.2832
90.22220094220337 15.470400000000001 -18.9864
89.60750451933578 14.7672 -18.9864
90.8078975099853 14.064 -18.9864
91.08024995675002 13.360800000000001 -18.9864
89.49365316446277 12.6576 -18.9864
91.58375806207157 11.954400000000001 -18.9864
89.03257006349845 11.2512 -18.9864
89.24323662269646 10.548 -18.9864
90.3721320761707 9.844800000000001 -18.9864
90.55779786729268 9.1416 -18.9864
89.79446407686441 8.438400000000001 -18.9864
89.95119023049608 7.735200000000001 -18.9864
80.70953726160614 7.032 -18.9864
80.82564278920923 6.3288 -18.9864
95.98623854536 5.6256 -18.9864
0.0 4.9224000000000006 -18.9864
0.0 4.219200000000001 -18.9864
34.921189900516694 3.516 -18.9864
30.222610330738995 2.8128 -18.9864
34.01837785382751 2.1096000000000004 -18.9864
31.19526203753481 1.4064 -18.9864
34.038885980093426 0.7032 -18.9864
32.15025813075559 0.0 -18.9864
32.14783675897712 -0.7032 -18.9864
34.97650592087236 -1.4064 -18.9864
31.18351303267522 -2.1096000000000004 -18.9864
34.944893194916965 -2.8128 -18.9864
31.14592612748786 -3.516 -18.9864
31.120093888817372 -4.219200000000001 -18.9864
32.03168238404632 -4.9224000000000006 -18.9864
33.87749595718588 -5.6256 -18.9864
26.31532555927742 -6.3288 -18.9864
31.908421708076848 -7.032 -18.9864
34.66868790133702 -7.735200000000001 -18.9864
30.866847026422143 -8.438400000000001 -18.9864
30.808322985779984 -9.1416 -18.9864
30.745158335192095 -9.844800000000001 -18.9864
22.310809155674114 -10.548 -18.9864
0.0 -11.2512 -18.9864
0.0 -11.954400000000001 -18.9864
0.0 -12.6576 -18.9864
0.0 -13.360800000000001 -18.9864
0.0 -14.064 -18.9864
0.0 -14.7672 -18.9864
0.0 -15.470400000000001 -18.9864
91.64926868764148 15.470400000000001 -19.689600000000002
90.13280960730648 14.7672 -19.689600000000002
89.50430176359127 14.064 -19.689600000000002
92.52088968402717 13.360800000000001 -19.689600000000002
90.94631443961909 12.6576 -19.689600000000002
90.26902442411493 11.954400000000001 -19.689600000000002
91.42022356785716 11.2512 -19.689600000000002
90.71091811743628 10.548 -19.689600000000002
90.91138562369538 9.844800000000001 -19.689600000000002
89.23901318089383 9.1416 -19.689600000000002
89.40853320431982 8.438400000000001 -19.689600000000002
80.23494140906057 7.735200000000001 -19.689600000000002
80.36265282437205 7.032 -19.689600000000002
98.25833988921312 6.3288 -19.689600000000002
0.0 5.6256 -19.689600000000002
0.0 4.9224000000000006 -19.689600000000002
0.0 4.219200000000001 -19.689600000000002
31.012062925895595 3.516 -19.689600000000002
30.09271548148044 2.8128 -19.689600000000002
31.049488284964667 2.1096000000000004 -19.689600000000002
27.29619445476356 1.4064 -19.689600000000002
34.83404982795299 0.7032 -19.689600000000002
34.83667352502522 0.0 -19.689600000000002
27.302363378665856 -0.7032 -19.689600000000002
30.119938708704616 -1.4064 -19.689600000000002
30.1085947005718 -2.1096000000000004 -19.689600000000002
31.97351019907297 -2.8128 -19.689600000000002
30.0723034432927 -3.516 -19.689600000000002
31.925321764432404 -4.219200000000001 -19.689600000000002
30.955953074548404 -4.9224000000000006 -19.689600000000002
30.920901589322277 -5.6256 -19.689600000000002
30.881192536609834 -6.3288 -19.689600000000002
30.836831897724153 -7.032 -19.689600000000002
31.720790789628598 -7.735200000000001 -19.689600000000002
29.80284440143994 -8.438400000000001 -19.689600000000002
29.74633772696461 -9.1416 -19.689600000000002
29.685350407737264 -9.844800000000001 -19.689600000000002
0.0 -10.548 -19.689600000000002
0.0 -11.2512 -19.689600000000002
0.0 -11.954400000000001 -19.689600000000002
0.0 -12.6576 -19.689600000000002
0.0 -13.360800000000001 -19.689600000000002
0.0 -14.064 -19.689600000000002
5468.967548596869 -14.7672 -19.689600000000002
0.0 -15.470400000000001 -19.689600000000002
88.52976584680536 15.470400000000001 -20.3928
89.73017583883697 14.7672 -20.3928
90.01370495592208 14.064 -20.3928
90.28367544812963 13.360800000000001 -20.3928
89.62550072446297 12.6576 -20.3928
88.9487843909521 11.954400000000001 -20.3928
90.09252726839655 11.2512 -20.3928
89.38421511707017 10.548 -20.3928
87.73470425726768 9.844800000000001 -20.3928
89.76579264802574 9.1416 -20.3928
86.22759939851262 8.438400000000001 -20.3928
86.37809999038711 7.735200000000001 -20.3928
74.42201254445222 7.032 -20.3928
0.0 6.3288 -20.3928
0.0 5.6256 -20.3928
0.0 4.9224000000000006 -20.3928
0.0 4.219200000000001 -20.3928
30.873528425326175 3.516 -20.3928
29.958287813125505 2.8128 -20.3928
27.16402458871638 2.1096000000000004 -20.3928
30.92243285073928 1.4064 -20.3928
30.929421302387595 0.7032 -20.3928
33.74372825807828 0.0 -20.3928
29.99216611140615 -0.7032 -20.3928
29.985389431019907 -1.4064 -20.3928
30.910786600953124 -2.1096000000000004 -20.3928
29.958287813125505 -2.8128 -20.3928
31.8090898927603 -3.516 -20.3928
30.847922111626634 -4.219200000000001 -20.3928
27.08219416586563 -4.9224000000000006 -20.3928
30.78277431707119 -5.6256 -20.3928
30.743242649326618 -6.3288 -20.3928
31.629355331392187 -7.032 -20.3928
26.935106448615333 -7.735200000000001 -20.3928
29.66971162099359 -8.438400000000001 -20.3928
29.61345736842086 -9.1416 -20.3928
